       0.188492       0.356822       0.914958
      -0.400983      -0.045432       0.914958
       0.193492      -0.283551       0.939234
       0.729968      -0.045432       0.681970
      -0.386986       0.567101       0.727075
      -0.223822      -0.696291       0.681969
       0.642850       0.567100       0.514918
       0.475145      -0.696291       0.537974
      -0.861294       0.237881       0.448982
       0.092495       0.888741       0.448981
      -0.762436      -0.391857       0.514918
       0.968622       0.237881       0.071998
       0.903874      -0.391857       0.171640
      -0.556308       0.815232       0.160992
       0.035359      -0.984525       0.171639
      -0.574642      -0.815232       0.071997
       0.574642       0.815232      -0.071997
       0.556308      -0.815232      -0.160992
      -0.903874       0.391857      -0.171640
      -0.968622      -0.237881      -0.071998
      -0.035359       0.984525      -0.171639
       0.762436       0.391857      -0.514918
       0.861294      -0.237881      -0.448982
      -0.475144       0.696291      -0.537975
      -0.092495      -0.888741      -0.448981
      -0.642850      -0.567100      -0.514918
       0.223822       0.696291      -0.681969
       0.386986      -0.567101      -0.727075
      -0.729968       0.045432      -0.681970
       0.400983       0.045432      -0.914958
      -0.193492       0.283551      -0.939234
      -0.188492      -0.356822      -0.914958
       0.552555       0.291537       0.780826
       0.302204       0.658409       0.689326
      -0.005142       0.658409       0.752643
      -0.198943       0.291537       0.935643
      -0.025704       0.037668       0.998960
       0.418448       0.037667       0.907459
      -0.611220       0.244826       0.752642
      -0.723270      -0.041367       0.689326
      -0.472918      -0.408239       0.780826
      -0.187630      -0.375916       0.907459
       0.156447      -0.631525       0.759408
       0.531023      -0.375916       0.759408
       0.743031      -0.408239       0.530327
       0.936832      -0.041366       0.347326
       0.858931       0.244826       0.449774
      -0.297644       0.838438       0.456541
      -0.672221       0.582830       0.456540
      -0.541119      -0.710559       0.449774
      -0.303024      -0.887435       0.347326
       0.109254      -0.840724       0.530327
       0.797931       0.582830       0.153673
       0.453854       0.838439       0.301724
       0.415630      -0.887435       0.199275
       0.674830      -0.710559       0.199275
      -0.826481       0.530530       0.188327
      -0.988407       0.116946       0.096827
      -0.946196      -0.116946       0.301723
       0.251449       0.963015       0.096827
      -0.192704       0.963015       0.188327
      -0.833620      -0.530530       0.153672
       0.988407      -0.116946      -0.096827
       0.946196       0.116946      -0.301723
       0.833620       0.530530      -0.153672
       0.826481      -0.530530      -0.188327
      -0.415630       0.887435      -0.199275
      -0.674830       0.710559      -0.199275
      -0.251449      -0.963015      -0.096827
       0.192704      -0.963015      -0.188327
      -0.797931      -0.582830      -0.153673
      -0.453854      -0.838439      -0.301724
       0.541119       0.710559      -0.449774
       0.303024       0.887435      -0.347326
       0.297644      -0.838438      -0.456541
       0.672221      -0.582830      -0.456540
      -0.743030       0.408239      -0.530327
      -0.936832       0.041366      -0.347326
      -0.858931      -0.244826      -0.449774
      -0.109253       0.840724      -0.530327
       0.723270       0.041367      -0.689326
       0.472918       0.408239      -0.780826
       0.611220      -0.244826      -0.752643
      -0.156446       0.631525      -0.759408
      -0.531024       0.375916      -0.759408
      -0.302204      -0.658409      -0.689326
       0.005142      -0.658409      -0.752643
      -0.552555      -0.291537      -0.780826
       0.187630       0.375916      -0.907459
       0.198943      -0.291537      -0.935643
      -0.418448      -0.037667      -0.907459
       0.025704      -0.037668      -0.998960
