    0.850651    0.525731    0.000000
    0.850651   -0.525731    0.000000
    0.525731    0.000000    0.850651
    0.525731    0.000000   -0.850651
    0.000000    0.850651    0.525731
    0.000000   -0.850651    0.525731
    0.000000    0.850651   -0.525731
    0.000000   -0.850651   -0.525731
   -0.525731    0.000000    0.850651
   -0.525731    0.000000   -0.850651
   -0.850651    0.525731    0.000000
   -0.850651   -0.525731    0.000000
    0.979432    0.201774    0.000000
    0.979432   -0.201774    0.000000
    0.854729    0.403548    0.326477
    0.730026    0.201774    0.652955
    0.854729    0.403548   -0.326477
    0.730026    0.201774   -0.652955
    0.652955    0.730026    0.201774
    0.326477    0.854729    0.403548
    0.652955    0.730026   -0.201774
    0.326477    0.854729   -0.403548
   -0.979432    0.201774    0.000000
   -0.979432   -0.201774    0.000000
   -0.854729    0.403548    0.326477
   -0.730026    0.201774    0.652955
   -0.854729    0.403548   -0.326477
   -0.730026    0.201774   -0.652955
   -0.652955    0.730026    0.201774
   -0.326477    0.854729    0.403548
   -0.652955    0.730026   -0.201774
   -0.326477    0.854729   -0.403548
    0.854729   -0.403548    0.326477
    0.730026   -0.201774    0.652955
    0.854729   -0.403548   -0.326477
    0.730026   -0.201774   -0.652955
    0.652955   -0.730026    0.201774
    0.326477   -0.854729    0.403548
    0.652955   -0.730026   -0.201774
    0.326477   -0.854729   -0.403548
   -0.854729   -0.403548    0.326477
   -0.730026   -0.201774    0.652955
   -0.854729   -0.403548   -0.326477
   -0.730026   -0.201774   -0.652955
   -0.652955   -0.730026    0.201774
   -0.326477   -0.854729    0.403548
   -0.652955   -0.730026   -0.201774
   -0.326477   -0.854729   -0.403548
    0.201774    0.000000    0.979432
   -0.201774    0.000000    0.979432
    0.403548    0.326477    0.854729
    0.201774    0.652955    0.730026
    0.403548   -0.326477    0.854729
    0.201774   -0.652955    0.730026
    0.201774    0.000000   -0.979432
   -0.201774    0.000000   -0.979432
    0.403548    0.326477   -0.854729
    0.201774    0.652955   -0.730026
    0.403548   -0.326477   -0.854729
    0.201774   -0.652955   -0.730026
   -0.403548    0.326477    0.854729
   -0.201774    0.652955    0.730026
   -0.403548   -0.326477    0.854729
   -0.201774   -0.652955    0.730026
   -0.403548    0.326477   -0.854729
   -0.201774    0.652955   -0.730026
   -0.403548   -0.326477   -0.854729
   -0.201774   -0.652955   -0.730026
    0.000000    0.979432    0.201774
    0.000000    0.979432   -0.201774
    0.000000   -0.979432    0.201774
    0.000000   -0.979432   -0.201774
    0.577350    0.577350    0.577350
    0.577350    0.577350   -0.577350
    0.577350   -0.577350    0.577350
    0.577350   -0.577350   -0.577350
   -0.577350    0.577350    0.577350
   -0.577350    0.577350   -0.577350
   -0.577350   -0.577350    0.577350
   -0.577350   -0.577350   -0.577350
    0.356822    0.934172    0.000000
   -0.356822    0.934172    0.000000
    0.356822   -0.934172    0.000000
   -0.356822   -0.934172    0.000000
    0.934172    0.000000    0.356822
    0.934172    0.000000   -0.356822
   -0.934172    0.000000    0.356822
   -0.934172    0.000000   -0.356822
    0.000000    0.356822    0.934172
    0.000000   -0.356822    0.934172
    0.000000    0.356822   -0.934172
    0.000000   -0.356822   -0.934172
