      -0.309448      -0.432909      -0.846659
       0.891817       0.199316       0.406122
      -0.431448       0.731052      -0.528597
      -0.979868      -0.032951       0.196909
       0.476680      -0.866879      -0.145937
      -0.594006      -0.803273       0.043707
      -0.357956      -0.621771       0.696612
       0.118744       0.568466      -0.814092
      -0.566880      -0.728066      -0.385445
      -0.920563      -0.147447      -0.361694
      -0.085258      -0.450515       0.888689
      -0.718272       0.611905       0.331145
       0.210155       0.395033       0.894306
       0.633163      -0.292329      -0.716692
       0.113542       0.668285       0.735189
      -0.721566      -0.204038      -0.661597
      -0.380153      -0.100056      -0.919496
       0.729574       0.029119       0.683281
       0.584126       0.714292       0.385466
      -0.922827       0.341463       0.178304
      -0.869975       0.081735       0.486274
      -0.529209       0.836340       0.143085
       0.955041       0.287400       0.072790
      -0.971620      -0.234265      -0.032770
       0.689371      -0.613580       0.385080
       0.666154       0.722501      -0.185017
       0.367862      -0.906658       0.206516
       0.374881       0.751495      -0.542880
       0.098746      -0.958051      -0.269050
       0.915936      -0.388498       0.100646
       0.870852       0.427617      -0.242405
      -0.051213      -0.994857       0.087382
       0.268123       0.851516       0.450589
       0.426500      -0.682326       0.593742
       0.040154      -0.171499      -0.984366
       0.469098       0.876842       0.105335
       0.320227       0.924900      -0.204976
       0.277526      -0.202842       0.939060
      -0.583971      -0.491942      -0.645733
      -0.221984       0.011011       0.974988
      -0.003203      -0.162068       0.986774
      -0.609365       0.758620      -0.230587
      -0.256606       0.627266       0.735317
       0.761786       0.135191      -0.633566
      -0.781817       0.345676       0.518913
       0.132121      -0.765701      -0.629481
      -0.315393       0.920114      -0.232200
      -0.560354       0.563770       0.606767
       0.080610       0.977161       0.196616
      -0.382039      -0.247012       0.890523
      -0.817444      -0.520337      -0.247051
      -0.563960       0.201287      -0.800895
      -0.230820      -0.781463      -0.579687
       0.858192      -0.244193      -0.451526
      -0.970786       0.165953      -0.173305
       0.163427       0.169245      -0.971930
       0.514349       0.296700       0.804621
      -0.089592       0.857027       0.507423
      -0.499706       0.361819       0.787007
       0.603130      -0.589480      -0.537352
      -0.001261      -0.728761       0.684767
       0.432981       0.599043       0.673554
       0.058764       0.140903       0.988278
       0.808786      -0.534641      -0.244999
       0.559238      -0.281945       0.779589
       0.711119       0.413522       0.568603
       0.800865       0.565906       0.195872
       0.700441      -0.709479       0.077602
      -0.849366      -0.498508       0.173396
      -0.850536      -0.261262       0.456432
      -0.634334      -0.340887       0.693842
       0.941509       0.070115      -0.329612
       0.272558      -0.496818       0.823944
       0.996655      -0.061784      -0.053488
      -0.141306       0.403127       0.904169
      -0.267272       0.954048       0.135490
      -0.307685      -0.880583       0.360422
      -0.317730       0.549368      -0.772815
      -0.426960       0.119114       0.896391
       0.397534      -0.792212      -0.462997
       0.780037      -0.330782       0.531156
       0.107936      -0.894007       0.434857
       0.459232      -0.062000      -0.886150
      -0.630265      -0.642047       0.436511
       0.656856       0.502749      -0.561946
      -0.402891       0.792297       0.458198
      -0.170742       0.251955      -0.952558
      -0.718643       0.474601      -0.508238
       0.003971       0.988623      -0.150359
       0.940705      -0.098014       0.324756
      -0.743925       0.667161       0.038363
       0.459331       0.333757      -0.823178
      -0.824898       0.146427      -0.545987
      -0.862842       0.479371      -0.160332
      -0.676444       0.015170       0.736338
      -0.033996       0.838859      -0.543286
      -0.023986      -0.536485      -0.843569
       0.315489      -0.451999      -0.834364
       0.393418       0.066789       0.916930
      -0.311056      -0.928913      -0.200910
